97.3750532751051 7.89465504801826 -21.3488505859973
97.5447951752049 6.94605369135435 -20.8989299329928
97.7042097226457 6.00390298606509 -20.4411484855224
97.8533695406407 5.06839137967112 -19.9757222238717
77.887537993921 -62.517031428208 5.01519756838906
78.2244003581358 -62.0309416970146 5.75373450827012
78.5487189077988 -61.5465968651742 6.48962034785862
78.860694901888 -61.0640911885859 7.22271188013177
79.160530191458 -60.583514992284 7.95287187039767
79.4484270124652 -60.1049547396168 8.67996895118945
79.7245877876427 -59.6284931034765 9.40387751404241
79.9892149373118 -59.1542090393361 10.1244775985261
80.2425106990014 -58.6821778598585 10.8416547788873
80.4846769557334 -58.2124713108542 11.5553000486446
80.7159150728198 -57.7451576483746 12.2653097034568
80.9364257430051 -57.2803017167376 12.9715852225752
81.146408839779 -56.817965027294 13.6740331491713
81.3460632786745 -56.3582058377509 14.3725649698163
81.5355868863598 -55.9010792318815 15.0670969933753
81.7151762773261 -55.4466371994586 15.7575502295607
81.8850267379679 -54.9949287162578 16.4438502673797
82.045332117847 -54.5459998239898 17.12592715369
82.1962847279303 -54.0998937100257 17.8037152720697
82.3380752455876 -53.6566507867911 18.4771532221905
82.470892626132 -53.2163087707126 19.1461836998707
82.5949240206888 -52.7789027606089 19.810753377972
82.710354700175 -52.3444653154265 20.4708127882933
82.8173679851718 -51.9130265312279 21.1263162045983
82.9161451814768 -51.4846141173477 21.7772215269087
83.0068655211202 -51.0592534716398 22.4234901671774
83.0897061086321 -50.6369677547448 23.0650869364518
83.1648418723534 -50.2177779633139 23.7019799336207
83.2324455205811 -49.8017030021318 24.3341404358354
83.2926875023449 -49.3887597550875 24.9615427906802
83.345735972615 -48.9789631549467 25.5841643101652
83.3917567617431 -48.5723262518854 26.201985166599
83.4309133489461 -48.1688602807504 26.8149882903982
83.4633668396415 -47.7685747270148 27.423159269877
83.4892759464517 -47.3714773914044 28.0264862530589
83.5087969736983 -46.9775744531725 28.6249598515399
83.5220838052095 -46.5868705320055 29.2185730464326
83.8611514100704 -45.9657515897052 29.2310958564807
84.1941417857648 -45.3416441771957 29.2486203480968
84.5209887894756 -44.7146829410928 29.271139088305
84.841628959276 -44.0850035863119 29.2986425339366
85.1560015547154 -43.452742778485 29.33111904173
85.4640485944342 -42.8180380455648 29.3685548806328
85.7657148907634 -42.1810276787677 29.4109342462852
86.0609480812641 -41.5418506330007 29.4582392776523
86.3496986571741 -40.9006464269252 29.5104500757762
86.6319199887308 -40.2575550428039 29.567544724609
86.9075683473488 -39.6127168262823 29.6294993138876
87.1766029246344 -38.9662723862515 29.6962879640044
87.4389858482284 -38.3183624949395 29.7678828528285
87.6946821944717 -37.6691279883788 29.8442542444225
87.9436599978978 -37.0187096673913 29.9253705196033
88.1858902575588 -36.3672481992346 30.0111982082866
88.4213469402021 -35.7148840200482 30.1017020235556
88.6500069803155 -35.0617572382364 30.1968448973892
88.8718502770711 -34.408007538921 30.2965880179834
89.086859688196 -33.7537740895939 30.4008908685968
89.2950210208124 -33.0991954470964 30.5097112678502
89.4963230192868 -32.4444094660467 30.6230054114054
89.6907573501403 -31.7895532088342 30.7407279149495
89.8783185840709 -31.1347628572946 30.8628318584069
90.0590041751493 -30.4801736261733 30.9892688313031
90.2328144372503 -29.8259196784832 31.1199889791981
90.3997525177878 -29.172134042854 31.2549410511118
90.5598243688255 -28.5189485329673 31.3940724478593
90.7130387156404 -27.8664936691669 31.5373292712147
90.8594070228174 -27.2148986023256 31.6846563738214
90.9989434579599 -26.5642910400462 31.8359974097677
91.1316648531013 -25.9147971752689 31.9912948857452
91.2575906639075 -25.2665416173497 32.150490212708
91.3767429267633 -24.6196473256711 32.313523757953
91.4891462138348 -23.9742355458371 32.4803348975387
91.594827586207 -23.3304257485032 32.6508620689653
91.861292837531 -22.89752262472 32.2056879427814
92.1250170601884 -22.4573258794928 31.7592466220825
92.3858914036474 -22.0097811862653 31.3116049043512
92.6438053097346 -21.5548358242809 30.8628318584069
92.8986465328277 -21.092438768627 30.4129988518143
93.1503011626279 -20.622540782092 29.9621795769714
93.3986536495965 -20.1450945087841 29.5104500757761
93.6435868331442 -19.6600545694538 29.0578887627694
93.8849819726556 -19.1673776584569 28.6045764466496
94.1227187814342 -18.6670226422857 28.1505963500501
94.3566754636492 -18.158950659592 27.6960341274717
94.5867287543656 -17.6431252226166 27.2409778812571
94.8127539627339 -17.1195123199325 26.785518175495
95.0346250184176 -16.5880805204033 26.3297480477382
95.2522145213299 -16.0488010782484 25.8737630184202
95.4653937947494 -15.5016480391009 25.4176610978519
95.6740329418827 -14.9465983469344 24.9615427906801
95.8780009059339 -14.383631951727 24.5055110976897
96.077165533741 -13.8127319177254 24.0496715148292
96.2713936430318 -13.2338845321583 23.5941320293398
96.4605510933477 -12.6470794142457 23.1390031128703
96.6445028606773 -12.0523096243388 22.6843977114581
96.8231131158378 -11.4495717730182 22.2304312322587
96.9962453066333 -10.8388661299679 21.7772215269086
97.1637622438142 -10.220196732439 21.3248888714055
97.325526190853 -9.59357149310184 20.8735559423959
97.4813989575459 -8.95900230708444 20.4233477897584
97.6312419974392 -8.31650515798113 19.9743918053777
97.7749165090734 -7.66610022261198 19.5268176880054
97.9122835410261 -7.00781197430356 19.0807574041107
98.0432041007282 -6.34166928445539 18.6363451446239
98.1675392670157 -5.66770552214943 18.1937172774869
98.28515030637 -4.98595865155325 17.7530122959247
98.3958987927898 -4.29647132686174 17.3143707623615
98.4996467312248 -3.59929098451614 16.8779352479116
98.596256684492 -2.89446993243458 16.4438502673797
98.7300113919244 -2.92316916175495 15.6153748786971
98.8580194307142 -2.95219159292458 14.7775694562809
98.9800748805784 -2.98153945443707 13.9303696690623
99.095966620306 -3.0112148949389 13.0737134909597
99.2054782494183 -3.04121997729485 12.2075413721962
99.3083880120589 -3.07155667240442 11.3317964178046
99.4044687234138 -3.10222685276291 10.4464245735011
99.493487698987 -3.13323228576131 9.55137481910277
99.5752066870689 -3.16457462671877 8.64659936966156
99.649381804761 -3.1962554116421 7.73205388448055
99.7157634779367 -3.22827604970664 6.80769768417131
99.7740963855422 -3.26063781545341 5.87349397590365
99.8241194086609 -3.29334184069754 4.92941008698961
99.8655655847897 -3.32638910614337 3.97541770693301
99.898162067795 -3.3597804327023 3.01149313806316
99.9216300940439 -3.39351647250951 2.03761755485894
99.9356849552269 -3.42759769963658 1.05377727205266
99.940035978413 -3.46202440049741 0.0599640215870523
99.934386513905 -3.4967966639456 -0.943824761520194
99.9184339314845 -3.5319143710621 -1.95758564437192
99.8918696256629 -3.56737718463283 -2.981308892436
99.8543790305804 -3.60318453831673 -4.01497815685457
99.8056416452172 -3.63933562550581 -5.05857015286021
99.7453310696095 -3.67582938787957 -6.11205432937181
99.6731150527839 -3.71266450365758 -7.17539252987512
99.58865555315 -3.749839375555 -8.24853864472829
99.4916088121139 -3.78735211844717 -9.33143825507023
99.3816254416961 -3.825200546751 -10.4240282685512
99.2583505269615 -3.86338216153204 -11.5262365471477
99.1214237440865 -3.90189413734817 -12.637981527371
98.9704794949093 -3.94073330884217 -13.759171833229
98.8051470588235 -3.97989615709755 -14.8897058823529
98.6250507628938 -4.01937879577387 -16.0294714857574
98.4298101710804 -4.05917695703973 -17.1783454417624
98.2190402934738 -4.09928597732407 -18.3361931246672
97.9923518164436 -4.13970078290835 -19.5028680688336
97.8332633095253 -5.19791971540981 -20.0408138767181
97.6609597299252 -6.26495348770989 -20.5690860863275
97.4753284494763 -7.34053136343285 -21.0873645335109
97.2762645914397 -8.42437163214429 -21.5953307392996
97.0636713265368 -9.51618171547512 -22.0926683352665
96.8374601618044 -10.6156582959602 -22.5790634959549
96.597551221313 -11.7224874689335 -23.0542053774688
96.3438735177866 -12.8363449177535 -23.5177865612648
96.0763652141573 -13.9568961125614 -23.9695035021385
95.794973874098 -15.0837965326973 -24.4090569793481
95.4996567005805 -16.2166919128226 -24.8361525497784
95.1903807615231 -17.3552185127141 -25.250501002004
94.8671232016084 -18.4990034106118 -25.6518188100773
94.5298714393749 -19.6476648199141 -26.0398285858331
94.1786233487137 -20.800812428929 -26.4142595284748
93.8133874239351 -21.9580477632971 -26.7748478701826
93.4341829276044 -23.1189645706136 -27.1213373164686
93.0410400203926 -24.2831492266857 -27.4534794799898
92.633999872229 -25.4501811627701 -27.7710343065227
92.2131147540984 -26.6196333130462 -28.0737704918033
91.7784481098774 -27.7910725814914 -28.3614658879405
91.3300746076666 -28.9640603272387 -28.633907898122
90.868080170136 -30.1381528674097 -28.8908938583489
90.3925619834711 -31.3129019963381 -29.1322314049587
89.9036284845741 -32.4878555200164 -29.3577388267253
89.4013993262503 -33.6625578045259 -29.5672454003628
88.8860053201843 -34.8365503371408 -29.7605917082982
88.3575883575884 -36.0093722987292 -29.93762993763
87.8163013074872 -37.1805611460176 -30.0982241592403
87.2623078926804 -38.3496532022283 -30.2422505860902
86.6957825435109 -39.5161842545535 -30.3695978097908
86.1169102296451 -40.679690156889 -30.4801670146138
85.5258862701574 -41.8397074362136 -30.5738721681792
84.922916122289 -42.9957739009781 -30.650640188137
84.3082151493367 -44.1474292498439 -30.7104110842429
83.6820083682009 -45.2942156791024 -30.7531380753139
83.6521626353674 -46.0502451918318 -29.6932754036704
83.6120401337793 -46.7880974516933 -28.633907898122
83.5619059769089 -47.5079318271746 -27.57542897238
83.502024291498 -48.2099162025749 -26.5182186234819
83.4326579261025 -48.8942264228087 -25.4626434978986
83.3540681761633 -49.5610457502912 -24.4090569793482
83.2665145253809 -50.2105643346309 -23.3577992968606
83.1702544031312 -50.8429786957595 -22.3091976516635
83.0655429576184 -51.4584912210482 -21.2635663614868
82.9526328444338 -52.0573096768717 -20.2212070209186
82.8317740301532 -52.6396467350054 -19.1824086764794
82.703213610586 -53.2057195141667 -18.1474480151229
82.5671956432629 -53.7557491369388 -17.1165895649119
82.4239609937312 -54.2899603022517 -16.0900859066636
82.2737471952132 -54.8085808735332 -15.0681778954031
82.1167883211679 -55.3118414825827 -14.051094890511
81.9533148702877 -55.7999751491696 -13.0390549935003
81.7835536634551 -56.273216916309 -12.0322652924043
81.607727752179 -56.7318035011179 -11.0309221118082
81.4260563380282 -57.1759729611204 -10.0352112676057
81.238754702579 -57.6059643758254 -9.04530832560935
81.0460341473958 -58.0220175433706 -8.06137886319435
80.848101943567 -58.4243726919951 -7.08357873320132
80.6451612903226 -58.8132702060739 -6.11205432937186
80.437411282267 -59.188950366425 -5.1469428526366
80.2250468847677 -59.5516531045769 -4.18837257762037
80.0082589170495 -59.9016177706678 -3.23646311877358
79.7872340425532 -60.2390829146295 -2.29132569558105
79.5621547661278 -60.5642860802982 -1.35306339634119
79.3331994376381 -60.8774636120814 -0.421771440048229
79.100542261579 -61.1788504738024 0.502462564051518
78.8643533123029 -61.4686800793371 1.41955835962143
78.6247985544758 -61.7471841346525 2.3294427894711
78.3820398683956 -62.0145924908539 3.23204954519062
78.136235079814 -62.2711330078451 4.1273189204736
46.8892955169259 -77.2529523046503 42.8179322964318
47.3368800228739 -76.786406816792 43.1632658387449
47.7746291817211 -76.318335203218 43.5097290081
48.2025998697258 -75.848895522592 43.8572048106355
48.6208529942247 -75.3782427550175 44.2055785312175
49.0294533153721 -74.9065287534971 44.5547377693692
49.4284692691198 -74.4339022014362 44.9045724707264
49.8179727917226 -73.960508576012 45.2549749541511
50.1980391460339 -73.4864901172277 45.6058399346382
50.5687467498413 -73.0119858024604 45.9570645421543
50.9301770064715 -72.5371313263131 46.3085483365512
51.2824141378791 -72.0620590855734 46.6601933186994
51.6255450204167 -71.5868981690801 47.0119039379888
51.9596590234657 -71.1117743522982 47.3635870963445
52.2848478510928 -70.6368100963988 47.7151521489073
52.6012053868807 -70.1621245516444 48.0665109015283
52.908827542066 -69.6878335648744 48.4175776052282
53.2078121071036 -69.2140496908923 48.7682689477682
53.4982586067608 -68.7408822075534 49.118504042483
53.7802681588328 -68.2684371343547 49.4682044145196
54.053943336556 -67.7968172543326 49.8172939846298
54.3193880347844 -67.3261221390737 50.1656990506566
54.5767073399814 -66.8564481766516 50.5133482668563
54.8260074040683 -66.3878886023003 50.8601726211936
55.0673953221592 -65.9205335316448 51.2061054107451
55.300979014203 -65.4544699963094 51.5510822153416
55.5268671105413 -64.9897819817304 51.8950408695806
55.7451688413846 -64.5265504670034 52.2379214333303
55.9559939301973 -64.064853466603 52.5796661608498
56.4582739510643 -63.7598149952615 52.413254947929
56.9595952311809 -63.4476194460877 52.2494411235609
57.4598287205276 -63.1282668351039 52.0882905248728
57.9588441193552 -62.8017605908758 51.9298686213879
58.4565099608338 -62.4681076097409 51.7742404565897
58.9526936967713 -62.1273183079928 51.6214705888161
59.4472617863296 -61.7794066708623 51.4716230315677
59.9400797876568 -61.4243902981397 51.3247611933182
60.4310124523454 -61.0622904462855 51.1809478169166
60.9199238226178 -60.6931320668815 51.0402449186769
61.4066773311317 -60.3169438412778 50.9027137272506
61.8911359032891 -59.933758211298 50.7684146223837
62.3731620619259 -59.5436114058697 50.6374070736596
62.8526180342473 -59.1465434634526 50.5097495793329
63.3293658608699 -58.7425982501467 50.3854996053622
63.8032675068209 -58.3318234733655 50.2647135247499
64.2741849743387 -57.9142706909727 50.1474465572997
64.74198041731 -57.4899953157835 50.0337527099041
65.2065162571736 -57.0590566153446 49.9236847174751
65.6676553001131 -56.6215177069151 49.8172939846298
66.1252608553542 -56.1774455475787 49.7146305282478
66.5791968543772 -55.7269109194305 49.6157429210119
67.0293279708498 -55.269988409789 49.5206782360465
67.475519741079 -54.8067563863977 49.4294819927674
67.9176386847788 -54.3372969675904 49.3421981040543
68.3555524259439 -53.8616959874051 49.2588688248561
68.7891298136186 -53.3800429556447 49.1795347023399
69.2182410423453 -52.8924310128931 49.1042345276873
69.6078086685205 -52.8701324916454 48.5747059968715
69.9995546157713 -52.8428257442227 48.0385066478899
70.3934457321128 -52.8103595850567 47.4955652504221
70.7894463308157 -52.772579131934 46.9458111011018
71.1875180868157 -52.7293257460564 46.3891741142863
71.5876199299935 -52.6804369732862 45.8255849178429
71.9897079352915 -52.6257464867777 45.2549749541511
72.3937352096393 -52.5650840312103 44.6772765865202
72.7996517756647 -52.4982753688527 44.0924232112285
73.2074044521726 -52.4251422277039 43.5003493753906
73.6169367313848 -52.3455022519718 42.9009909008651
74.0281886529367 -52.2591689551668 42.2942850144146
74.4410966746391 -52.1659516761063 41.6801704843343
74.8555935400213 -52.0656555381425 41.0585877637628
75.2716081426824 -51.9580814119453 40.4294791408958
75.6890653874888 -51.8430258821926 39.7927888963158
76.1078860486677 -51.7202812185378 39.1484634676559
76.5279866248611 -51.5896353512472 38.4964516218109
76.9492791912176 -51.4508718519209 37.836704634908
77.3716712486153 -51.3037699197316 37.1691764802429
77.7950655701268 -51.1481043736402 36.4938240243864
78.2193600448541 -50.9836456510672 35.8106072316556
78.6444475192805 -50.8101598135259 35.1194893771405
79.0702156363092 -50.6274085597445 34.420437268464
79.4965466721771 -50.4351492468288 33.7134214764456
79.9233173714596 -50.2331349200435 32.9984165748243
80.3503987804045 -50.0211143518121 32.2754013891835
80.777656078861 -49.7988320905617 31.5443592552026
80.7313962409577 -50.3185786245558 30.829893061603
80.6748387501677 -50.8434138176591 30.1084317758449
80.6076778344741 -51.3733147508121 29.3800069034646
80.5296022740512 -51.9082539489611 28.6446562128661
80.4402954823513 -52.4481991714184 27.9024240235008
80.339435602085 -52.9931131973837 27.1533615007002
80.2266956169729 -53.5429536068102 26.3975269569057
80.1017434801614 -54.0976725568321 25.6349861590014
79.9642422602205 -54.6572165540048 24.8658126414036
79.8138503056537 -55.2215262226413 24.0900880245142
79.6502214288678 -55.7905360695729 23.3079023380915
79.4730051105603 -56.3641742456981 22.519354349036
79.2818467254905 -56.9423623047285 21.7245518930277
79.0763877906059 -57.5250149595862 20.9236122093942
78.8562662364923 -58.1120398369522 20.1166622785172
78.6211167031173 -58.7033372305199 19.3038391610233
78.3705708608204 -59.298799853552 18.4852903379283
78.1042577574938 -59.8983125914001 17.6611740508349
77.8218041928726 -60.5017522546978 16.8316596412049
77.5228351208274 -61.1089873339952 15.9969278876483
77.206974080516 -61.7198777566645 15.1571713400923
76.8738436572086 -62.3342746469634 14.3125946496083
76.52306597355 -62.9520200902054 13.4634148925929
76.1542632119622 -63.5729469020506 12.6098618879122
75.7670581688218 -64.1968784039885 11.752178505532
75.3610748409672 -64.8236282061508 10.8906209650726
74.935939045003 -65.4529999986548 10.0254591226379
74.4912790697676 -66.0847873527368 9.15697674418588
73.7123452692541 -66.9193114217646 9.39659053823032
72.9266160943788 -67.7393258455907 9.64844023705282
72.1344990802784 -68.5445849171515 9.91231158573619
71.3364028270625 -69.3348588618879 10.1879820522594
70.5327363796729 -70.1099339465874 10.4752212769338
69.7239086177951 -70.8696125508 10.773791531158
68.9103276574936 -71.6137132013984 11.0834481838793
68.0924002661499 -72.3420705709944 11.4039401741544
67.2705312921906 -73.0545354410506 11.7350104882223
66.4451231109884 -73.750974630648 12.0763966395238
65.6165750882201 -74.4312708919826 12.4278311501352
64.7852830618523 -75.0953227737673 12.7890420321219
63.9516388438197 -75.7430444538094 13.1597532673641
63.1160297423484 -76.3743655421171 13.5396852844543
62.2788381057608 -76.9892308559637 13.9285554313276
61.4404408884911 -77.587600168401 14.326078442343
60.6012092399226 -78.1694479317696 14.7319668986014
59.7615081165515 -78.7347629777942 15.1459316803528
58.9216959178698 -79.283548195892 15.5676824104219
58.0821241462546 -79.8158201913408 15.9969278876483
57.2431370910459 -80.3316089249761 16.433376509422
56.4050715368983 -80.8309573360857 16.8767366824656
55.5682564963907 -81.3139209501759 17.3267172210978
54.7330129667911 -81.7805674732681 17.783027732288
53.8996537107839 -82.2309763743701 18.2453789868933
53.0684830608853 -82.6652384577403 18.7134832765432
52.2397967471965 -83.0834554265329 19.187054755718
51.413881748072 -83.4857394393739 19.6658097686374
51.2807229003438 -83.3247227269675 20.6707049055454
51.1442302465603 -83.1569143854433 21.6609164713518
51.0045794391786 -82.9826299538071 22.6366075678764
50.8619399261551 -82.8021744337856 23.5979443169343
50.7164751164354 -82.6158425493995 24.5450954697028
50.5683425446294 -82.4239190067468 25.4782320394934
50.4176940345196 -82.2266787533159 26.3975269569057
50.2646758610867 -82.0243872362122 27.3031547463621
50.1094289107739 -81.8173006587463 28.1952912230466
49.9520888397394 -81.6056662348877 29.074113209295
49.7927862298818 -81.3897224411422 29.939798269513
49.6316467424465 -81.169699265462 30.792524462724
49.4687912690479 -80.9458184528422 31.6324701118785
49.3043360799676 -80.7182937473001 32.4598135890855
49.138392969608 -80.487331129976 33.2747331159542
48.9710693990012 -80.2531290531257 34.0774065782676
48.8024686352921 -80.0158786698138 34.8680113542336
48.6326898881304 -79.7757640591427 35.6467241555931
48.4618284429213 -79.532962446884 36.4137208808906
48.289975790899 -79.2876444214037 37.1691764802429
48.1172197559991 -79.039974144794 37.9132648309688
47.9436446185168 -78.7901095591505 38.6461586234702
47.7693312355496 -78.5382025879476 39.368029256782
47.5943571582305 -78.2843993324876 40.079046743235
47.4187967457665 -78.0288402634108 40.7793796217011
47.242721276306 -77.7716604072718 41.4691948789129
47.0661990546619 -77.5129895281967 42.1486578783788
28.0361050328227 -69.8789644738538 65.8096280087528
28.4636972542658 -69.5566735007716 65.9673185003344
28.8847432118894 -69.2310617941698 66.1266337600444
29.2992203777248 -68.902263948386 66.2875079335803
29.7071101863723 -68.5704137547426 66.4498755595384
30.1083979584122 -68.2356441008246 66.6136716186961
30.5030728208012 -67.8980868738178 66.7788315813057
30.8911276245029 -67.5578728679533 66.9452914523802
31.272558859598 -67.2151316960904 67.1129878149543
31.6473665681156 -66.86999170546 67.281857871309
32.0155542548247 -66.5225798975794 67.4518394821561
32.3771287962183 -66.1730218523368 67.6228712037817
32.7321003479216 -65.821441656238 67.7948923231541
33.0804822507435 -65.4679618347925 67.9678428910054
33.4222909355924 -65.1127032890136 68.1416637529015
33.7575458274657 -64.7557852359923 68.3162965783172
34.0862692487167 -64.3973251535013 68.4916838877408
34.4084863217981 -64.0374387285754 68.6677690778329
34.7242248716702 -63.6762398100092 68.8444964446678
35.033515328059 -63.313840364704 69.0218112050925
35.3363906277364 -62.9503504377936 69.1996595162361
35.6328861169923 -62.585878116469 69.3779884932098
35.9230394544569 -62.2205294974207 69.5567462250365
36.3845173085226 -62.1519236457076 69.3779884932098
36.8484073423939 -62.0773871805668 69.1996595162361
37.3146365029567 -61.9968344403226 69.0218112050925
37.7831288571028 -61.9101807705944 68.8444964446679
38.2538055713367 -61.8173426247342 68.6677690778329
38.7265848943404 -61.7182376663756 68.4916838877408
39.2013821426458 -61.6127848739989 68.3162965783172
39.6781096895681 -61.5009046474042 68.1416637529015
40.1566769575486 -61.3825189159803 67.9678428910055
40.6369904140565 -61.2575512486406 67.7948923231541
41.1189535711973 -61.1259269652942 67.6228712037817
41.6024669891714 -60.9875732497068 67.4518394821561
42.0874282837252 -60.8424192635965 67.281857871309
42.5737321377319 -60.6903962618011 67.1129878149543
43.0612703170356 -60.5314377083434 66.9452914523802
43.5499316906884 -60.3654793932093 66.7788315813057
44.0396022557018 -60.1924595496488 66.6136716186962
44.5301651664308 -60.0123189717931 66.4498755595385
45.0215007687005 -59.8250011323813 66.2875079335803
45.5134866387767 -59.6304523003712 66.1266337600445
46.0059976272752 -59.4286216582092 65.9673185003345
46.4989059080963 -59.2194614185201 65.8096280087528
46.7876771378539 -59.4573972173791 65.389075419207
47.0792232883757 -59.6956579614933 64.961335847623
47.3735654390799 -59.9341879525773 64.5262614138953
47.6707241200804 -60.1729285253365 64.083701005419
47.9707192572338 -60.4118179157511 63.6335002184996
48.2735701138455 -60.6507911237969 63.1755013001179
48.5792952288555 -60.8897797703838 62.7095430902017
48.8879123513138 -61.1287119482908 62.235460964575
49.199438370947 -61.367512066868 61.7530867787692
49.5138892446074 -61.606100690269 61.2622488128961
49.8312799183866 -61.8443943689742 60.7627717178059
50.1516242451635 -62.0823054643577 60.2544764627667
50.4749348973498 -62.3197419660443 59.7371802849277
50.8012232745787 -62.5566073018009 59.2106966408492
51.1304994060788 -62.7928001396983 58.6748351604066
51.4627718474553 -63.0282141822787 58.1294016034017
51.7980475715962 -63.2627379524571 57.5741978192437
52.1363318534015 -63.4962545708849 57.0090217100888
52.4776281480276 -63.7286415244989 56.4336671978639
52.8219379623197 -63.9597704259801 55.8479241956295
53.169260719096 -64.1895067638449 55.2515785837754
53.5195936139332 -64.4177096428918 54.644412191582
53.2404448904676 -64.9828674392269 54.2464926722544
52.9498102015159 -65.5499278060058 53.8472335802952
52.6474949349293 -66.1187289219514 53.4467488517506
52.3333064280791 -66.6891019467183 53.0451573646925
52.0070542982139 -67.2608709252011 52.6425830065933
51.6685507859619 -67.8338527004155 52.2391547356655
51.317611111863 -68.4078568357208 51.8350066356235
50.9540538457586 -68.9826855471696 51.430277963315
50.5777012888085 -69.5581336467931 51.0251131886537
50.1883798678402 -70.1339884976395 50.6196620262753
49.7859205416708 -70.7100299814039 50.2140794583292
49.3701592189709 -71.286030479492 49.8085257478115
48.9409371871673 -71.8617548683704 49.4031664418383
48.4981015518043 -72.4369605300582 48.9981723642593
48.0415056857045 -73.0113973786128 48.5937195970088
47.5710096871874 -73.5848079034604 48.1899894495979
47.086480846521 -74.1569272304087 47.7871684161562
46.5877941196933 -74.7274832011667 47.3854481194429
46.0748326085032 -75.296196472175 46.985025241262
45.5474880458812 -75.8627806335259 46.5861014387321
45.0056612852585 -76.4269423487192 46.1888832458866
44.4492627927146 -76.9883815159627 45.7935819601041
43.6848429649303 -77.1895171615113 46.1888832458866
42.9253512074189 -77.3766720430641 46.5861014387321
42.1710026489962 -77.5500737501669 46.985025241262
41.4220017532386 -77.7099548145171 47.3854481194429
40.6785424248674 -77.856552203101 47.7871684161562
39.9408081334009 -77.9901068245101 48.1899894495979
39.2089720528269 -78.1108630491811 48.5937195970088
38.4831972160589 -78.2190682442092 48.9981723642593
37.7636366829552 -78.3149723232906 49.4031664418384
37.0504337207064 -78.3988273122573 49.8085257478115
36.3437219954197 -78.4708869305824 50.2140794583292
35.6436257737613 -78.5314061891529 50.6196620262753
34.9502601335517 -78.5806410045257 51.0251131886537
34.2637311822432 -78.6188478298119 51.430277963315
33.5841362822516 -78.6462833022643 51.8350066356235
32.9115642821505 -78.6632039075772 52.2391547356655
32.2460957527833 -78.6698656608505 52.6425830065933
31.5878032273887 -78.6665238041111 53.0451573646925
30.9367514448821 -78.653432520237 53.4467488517506
30.292997595479 -78.6308446630801 53.8472335802952
29.6565915678933 -78.5990115035438 54.2464926722544
29.0275761973875 -78.5581824913315 54.644412191582
29.0051131543347 -78.1406838650977 55.2515785837754
28.9798170279596 -77.7250253654845 55.8479241956295
28.9518084348741 -77.3112798687947 56.4336671978639
28.9212035768494 -76.899515130624 57.0090217100888
28.8881143939877 -76.4897940396657 57.5741978192437
28.8526487132923 -76.0821748601983 58.1294016034017
28.8149103926983 -75.6767114636985 58.6748351604066
28.7749994606373 -75.2734535500109 59.2106966408492
28.7330122512107 -74.8724468584928 59.7371802849277
28.6890415350575 -74.473733369542 60.2544764627667
28.6431766460017 -74.0773514969032 60.7627717178059
28.5955036035713 -73.6833362711336 61.2622488128961
28.5461052314823 -73.291719514601 61.7530867787692
28.4950612721843 -72.9025300083702 62.235460964575
28.4424484975644 -72.515793651325 62.7095430902016
28.3883408159091 -72.1315336118579 63.1755013001179
28.3328093752235 -71.7497704724514 63.6335002184996
28.2759226630066 -71.3705223674574 64.0837010054189
28.2177466025833 -70.9938051143763 64.5262614138953
28.1583446460921 -70.61963233892 64.961335847623
28.0977778642256 -70.2480155941354 65.389075419207
68.1120491174213 51.5095692964651 52.0337682271681
68.1305321615362 51.0260020707574 52.4840709173836
68.1425216465167 50.5468679999941 52.9302454088886
68.1481955626972 50.0721718683882 53.3722872465756
68.1477286641362 49.6019159250061 53.8101943360912
68.1412924644416 49.1360999986103 54.2439668368936
68.129055237049 48.6747216093356 54.6736070582581
68.1111820196682 48.2177760772005 55.0991193582309
68.0878346226244 47.7652566274616 55.5205100455217
68.0591716408299 47.3171544928249 55.9377872843233
68.0253484691326 46.8734590125366 56.3509610020373
67.9865173208011 46.4341577283791 56.7600427998819
67.9428272489111 45.9992364776049 57.1650458663509
67.894424170415 45.5686794828441 57.5659848934906
67.8414508926795 45.1424694390275 57.9628759959565
67.7840471422918 44.7205875973692 58.3557366328075
67.722349595941 44.3030138464564 58.7445855319947
67.6564919131919 43.8897267904973 59.1294426174956
67.586604770977 43.4807038247806 59.510328939046
67.5128158996432 43.0759212084013 59.8872666044168
67.4352501203949 42.6753541343106 60.2602787141825
67.3540293839874 42.2789767967482 60.6293892989282
67.269272810529 41.8867624561171 60.9946232588369
67.1810967302608 41.4986835013624 61.3560063056022
67.0896147251895 41.1147115099144 61.7135649066083
66.9949376714546 40.7348173052599 62.0673262313193
66.8971737823211 40.3589710122032 62.4173180998196
66.5249183721034 40.4253116447404 62.7712467138466
66.1549312002682 40.4875516536503 63.1211790049963
65.7872266467559 40.5457925080499 63.4671530795461
65.4218176086837 40.6001335839612 63.8092072803026
65.05871555974 40.6506721923569 64.1473801493591
64.6979306077705 40.6975036077756 64.4817103926936
64.3394715505894 40.7407210974285 64.8122368465435
63.9833459300503 40.7804159507258 65.1389984454881
63.6295600844116 40.8166775091561 65.4620341921774
63.2781191990333 40.8495931964527 65.7813831286426
62.9290273554402 40.879248548991 66.0970843091288
62.5822875787894 40.9057272463582 66.4091767743905
62.2379018837782 40.9291111420456 66.7176995273914
61.8958713190299 40.9494802942132 67.022691510353
61.5561960099938 40.9669129964839 67.3241915830985
61.2188752003972 40.9814858087229 67.6222385026378
60.8839072922864 40.9932735877655 67.9168709039431
60.5512898846914 41.0023495180554 68.2081272818664
60.2210198109539 41.0087851421616 68.4960459741489
59.8930931747514 41.0126503911429 68.7806651454785
59.5675053848556 41.0140136147299 69.0620227725481
59.2442511886585 41.0129416113017 69.3401566300733
58.9233247045024 41.0094996576297 69.6151042777259
58.6047194528468 41.0037515383695 69.8869030479444
58.2884283863074 40.9957595752798 70.1555900345807
57.9744439185991 40.9855846561494 70.4212020823474
57.716028118881 41.3018828970112 70.4486661856852
57.4548396924375 41.6152388040839 70.4777503556646
57.1909311199427 41.9256079043438 70.5084448806326
56.9243555917511 42.2329469166324 70.5407395424855
56.6551669742112 42.5372137698904 70.5746236250602
56.3834197756211 42.8383676202526 70.6100859228921
56.109169111872 43.1363688669927 70.6471147503286
55.8324706718214 43.4311791673067 70.6856979509824
55.5533806824382 43.7227614499295 70.7258229075113
55.2719558737653 44.0110799275773 70.7674765517108
54.9882534437393 44.2961001082119 70.8106453749036
54.7023310229129 44.5777888051263 70.855315438612
54.4142466391201 44.8561141458505 70.9014723854974
54.1240586821275 45.1310455798782 70.949101450551
53.8318258683126 45.402553885221 70.9981874725213
53.5376072054095 45.6706111737915 71.0487149055606
53.2414619573637 45.9351908956256 71.1006678310761
52.9434496093334 46.1962678419514 71.1540299697681
52.6436298328781 46.4538181471145 71.2087846938404
52.3420624513714 46.7078192893734 71.2649150393654
52.0388074056753 46.9582500905769 71.3224037187886
51.7339247201119 47.20509071474 71.3812331335552
51.4274744687675 47.4483226655343 71.4413853868442
51.1195167421645 47.6879287827103 71.5028422963921
50.8101116143311 47.923893237472 71.5655854073912
50.4993191103042 48.1562015268241 71.6295960054472
50.4579385883205 48.4939628566747 71.4306096843134
50.4131927515587 48.8338020592832 71.2303992199183
50.365017809468 49.1757064987256 71.0289720565008
50.3133493161279 49.519662488254 70.8263362573746
50.2581221832802 49.865655260703 70.6225005223633
50.1992706944647 50.2136689385504 70.4174742054379
50.1367285202967 50.5636865036518 70.2112673325477
50.0704287349239 50.9156897666687 70.003890619631
50.0003038337022 51.2696593362121 69.7953554907934
49.9262857521301 51.6255745877251 69.5856740966406
49.8483058860796 51.9834136321302 69.3748593327489
49.7662951133637 52.3431532842683 69.162924858259
49.6801838166802 52.7047690311586 68.949885114575
49.5899019079699 53.0682350001104 68.735755344151
49.4953788542301 53.4335239267197 68.520551609345
49.3965437048196 53.8006071227867 68.3042908113202
49.293325120297 54.1694544441899 68.0869907089712
49.1856514028273 54.5400342587581 67.8686699378516
49.0734505281962 54.91231341418 67.6493480290797
48.9566501794679 55.2862572059973 67.4290454281944
48.8351777823226 55.6618293457267 67.2077835139364
48.7089605421085 56.0389919291586 66.9855846169235
48.5779254826424 56.4177054048855 66.7624720381922
48.4419994867913 56.797928543112 66.5384700675726
48.3011093388657 57.179618404803 66.3136040018642
48.1551817688552 57.5627303112281 66.0879001627782
48.4144132674266 57.745303675145 65.7383030769438
48.6758146501012 57.9278358843918 65.3837204348297
48.9394014024315 58.1102889291425 65.0240671670364
49.2051887739398 58.2926232304815 64.6592566817009
49.4731917551584 58.4747975842762 64.2892008430285
49.7434250534674 58.6567691031372 63.9138099500517
50.0159030676738 58.8384931564089 63.5329927156614
50.2906398612745 59.0199233081289 63.1466562459658
50.5676491343445 59.2010112528957 62.7547060200297
50.8469441939865 59.3817067495823 62.3570458700557
51.1285379232778 59.5619575528328 61.9535779620716
51.4124427486475 59.7417093422761 61.5442027771913
51.6986706056131 59.9209056493935 61.1288190935241
51.9872329028035 60.0994877819723 60.7073239688115
52.2781404841939 60.2773947460794 60.2796127238738
52.5714035894727 60.4545631654865 59.8455789269599
52.8670318124584 60.6309271984802 59.4051143790929
53.165034057484 60.8064184519864 58.9581091005173
53.4654184936576 60.9809658929427 58.5044513183554
53.7681925069116 61.1544957568473 58.0440274555913
54.0733626497429 61.3269314534189 57.5767221215054
54.3809345885488 61.498193469296 57.1024181036934
54.6909130484557 61.6681992677107 56.6209963618107
55.0033017555372 61.8368631850683 56.1323360231913
55.3181033763128 62.0040963243682 55.6363143805019
55.635319454415 62.1698064454011 55.1328068916009
56.1458272830408 61.8520022685483 54.9725012535763
56.6550878889122 61.5265886668436 54.8149605793953
57.1629553357905 61.1935703543382 54.6602550722834
57.6692823856736 60.8529560901307 54.508454428777
58.1739206051968 60.5047587404105 54.3596277690069
58.6767204757859 60.1489953363625 54.2138435663136
59.1775315074495 59.7856871277312 54.071169576308
59.6762023560815 59.4148596318424 53.9316727654954
60.1725809441373 59.0365426778894 53.7954192395875
60.6665145845307 58.6507704462978 53.6624741716277
61.1578501075892 58.257581502988 53.5329017300609
61.6464339908953 57.8570188283661 53.4067650068816
62.1321124918248 57.449129840881 53.2841259459966
62.6147317825883 57.0339664149958 53.1650452719422
63.0941380875678 56.6115848934331 53.0495824190968
63.5701778227298 56.1820460935647 52.9377954615328
64.0426977368882 55.7454153078283 52.8297410436519
64.5115450545811 55.3017622980653 52.7254743117502
64.9765676203142 54.8511612836917 52.6250488466584
65.4376140439187 54.3936909236209 52.5285165976038
65.8945338467627 53.9294342918791 52.4359278174397
66.3471776085466 53.4584788468642 52.3473309993866
66.7953971144118 52.980916394216 52.2627728154288
67.2390455020802 52.4968430432819 52.1822980565077
67.6779774087449 52.0063591571786 52.10594957465
89.8279352226721 24.1049581012875 36.7408906882591
89.6169501199065 23.8468187024788 37.418330921853
89.4024646352578 23.592046007917 38.0869358481594
89.1846465200837 23.3406006772859 38.7468087087337
88.9636582244114 23.092443280526 39.3980529806462
88.7396570332174 22.8475343365603 40.0407722748531
88.5127952008505 22.6058343496773 40.6750702407168
88.2832200834934 22.3673038436749 41.3010504764007
88.051074269571 22.1319033938667 41.918816444874
87.8164957080262 21.8995936570486 42.5284713952708
87.5796178343949 21.6703353995196 43.130118289354
87.3405696946232 21.4440895232484 43.7238597328459
87.0994760665787 21.2208170902734 44.3097979113947
86.8564575792179 21.0004793454216 44.8880345309531
86.6116308293772 20.7830377374267 45.4586707623569
86.3651084961675 20.5684539385271 46.0218071898953
86.116999452954 20.3566898626163 46.5775437636762
85.8674088769135 20.1477076820216 47.1259797555951
85.6164383561644 19.9414698429783 47.6672137187259
85.3641859944721 19.737939079867 48.2013434499563
85.1107465135357 19.537078428279 48.7284659557014
84.8562113528678 19.3388512369698 49.2486774205336
84.6006687672818 19.1432211787603 49.7620731785737
84.3442039220055 18.9501522604422 50.2687476874968
84.0868989854433 18.7596088317412 50.7687945050098
83.828833219612 18.5715555933889 51.2623062676674
83.5700830682766 18.3859576043542 51.7493746718958
83.3107222428164 18.2027802882796 52.2300904571007
83.050821805854 18.0219894391683 52.7045433907437
82.7904502526794 17.8435512263641 53.1728222552718
82.5296735905044 17.6674321988665 53.6350148367953
82.246839989832 18.026309894238 53.9491377436551
81.9624143785492 18.3791469393981 54.2620455476846
81.6764848039946 18.7259963895811 54.5737014438295
81.3891375277914 19.0669122047075 54.8840701065458
81.1004570301998 19.4019491841661 55.193117662873
80.8105260160055 19.7311629034133 55.5008116651952
80.5194254218652 20.0546096523897 55.8071210637403
80.2272344250323 20.3723463757504 56.1120161788664
79.9340304533837 20.6844306149024 56.4154686731823
79.6398891966759 20.9909204518389 56.7174515235457
79.3448846189554 21.2918744547596 57.0179389929819
79.0490889720545 21.5873516254623 57.3169066025624
78.752572810102 21.8774113484884 57.614331103282
78.4554050049834 22.1621133420041 57.9101904479703
78.1576527626849 22.4415176103967 58.2044637632701
77.859381640459 22.7156843985639 58.497131321717
77.5606555647504 22.9846741478704 58.7881745139478
77.2615368498245 23.2485474537491 59.0775758210675
76.9620862170412 23.5073650249174 59.3653187872011
76.6623628147192 23.7611876441825 59.6513879922531
76.3624242385392 24.0100761308062 59.9357690249007
76.0623265524352 24.2540913043991 60.2184484558393
75.7621243099247 24.4932939503137 60.499413811301
75.4618705758321 24.7277447865053 60.7786535468648
75.1616169483604 24.9575044318282 61.0561570215749
74.861413581469 25.1826333757354 61.3319144723817
74.5613092075154 25.4031919493487 61.605916988921
74.2613511601239 25.619240297866 61.8781564886428
73.9615853972426 25.8308383542729 62.1486256923017
73.6620565243535 26.0380458143247 62.4173180998196
73.5606359493914 26.4732692497329 62.3538198826042
73.4548833168424 26.9085046545953 62.2921543548037
73.3447945590399 27.3436810764308 62.2323405978168
73.2303669991285 27.7787271234236 62.174397211194
73.1115993635881 28.2135709998719 62.118342298659
72.9884917937263 28.6481405423011 62.0641934544042
72.8610458561135 29.0823632562067 62.0119677496802
72.729264551939 29.5161663533903 61.9616817196972
72.593152325266 29.9494767898543 61.9133513508573
72.4527150701647 30.3822213042131 61.8669920683344
72.3079601367055 30.8143264565854 61.8226187240203
72.1588963357957 31.2457186679235 61.780245584854
72.0055339428424 31.6763242597404 61.7398863215503
71.8478847002304 32.10606949419 61.701553997745
71.6859618186 32.534880614458 61.6652610595722
71.5197799769172 32.9626838854181 61.6310193256882
71.3493553213255 33.3894056345092 61.5988399777581
71.1747054627739 33.8149722927859 61.568733551418
70.9958494734153 34.2393104360977 61.5407099277273
70.8128078817734 34.6623468263477 61.5147783251232
70.6256026666748 35.0840084527845 61.4909472918894
70.4342572499506 35.5042225732795 61.4692246991518
70.2387964879059 35.9229167555403 61.4496177344095
70.0392466615654 36.3400189182126 61.4321328956138
69.8356354656995 36.755457371822 61.4167759858014
69.6279919966405 37.169160859508 61.4035521082924
69.4163467388987 37.5810585975006 61.392465662459
69.2007315505906 37.9910803152929 61.3835203400722
68.9811796476938 38.399156295461 61.3767191222319
68.7577255871445 38.8052174130852 61.3720642768851
68.8604376532612 39.1269629271431 61.0517886576577
68.9609671500741 39.4518572488325 60.7283786161309
69.0592420589791 39.7799238918823 60.4018107459982
69.1551887154064 40.1111860669843 60.072061942606
69.2487317819469 40.4456666555258 59.7391094291006
69.3397942215755 40.7833881822723 59.4029307836209
69.4282972710094 41.124372786971 59.0635039675652
69.5141604142449 41.4686421948456 58.7208073549615
69.5973013563148 41.8162176859542 58.3748197629696
69.6776359973136 42.1671200633794 58.0255204835461
69.7550784067398 42.5213696202221 57.6728893162987
69.8295407982079 42.8789861053705 57.3169066025624
69.9009335045848 43.2399886880124 56.9575532607236
69.9691649536085 43.604395920865 56.5948108228235
70.0341416440514 43.9722257020901 56.2286614724679
70.0957681224927 44.3434952358692 55.8590880840726
70.1539469607671 44.7182209916078 55.4860742634726
70.2085787341626 45.0964186617432 55.1096043899216
70.2595620004418 45.478103118128 54.7296636595092
70.3067932797662 45.8632883669627 54.346238130022
70.3501670356059 46.2519875022537 53.9593147672736
70.3895756567217 46.6442126577706 53.5688814929277
70.4249094403092 47.0399749574805 53.174927233837
70.4560565764023 47.4392844644372 52.7774419729208
70.4829031336317 47.8421501281051 52.3764168016002
70.505333046445 48.2485797300986 51.9718439738113
70.5232281038938 48.65857982832 51.5637169616114
70.5364679401006 49.0721556994809 51.1520305123957
70.5449300265232 49.4893112799939 50.7367807077352
70.5484896661366 49.9100491052241 50.3179650238474
70.9158679018933 49.8616370002556 49.8473352886186
71.2850754973753 49.8086673487583 49.3713952433414
71.656083509492 49.7510208617186 48.8900973541426
72.0288610771719 49.6885757380532 48.4033946438597
72.403375351599 49.6212076342788 47.9112407542453
72.7795914246289 49.5487896352959 47.4135900111063
73.1574722553737 49.4711922264111 46.910397492472
73.5369785949505 49.3882832667272 46.4016190998903
73.9180689093891 49.2999279640404 45.8872116329509
74.3006993006992 49.2059888513886 45.3671328671329
74.6848234261028 49.1063257654038 44.8413416350792
75.0703924154399 49.0007958266314 44.3097979113947
75.4573547867626 48.8892534219841 43.7724629010711
75.8456563601351 48.7715501895099 43.2292991316354
76.2352401696663 48.6475350056604 42.6802705491231
76.6260463738054 48.5170539752561 42.1253426179718
77.0180121639373 48.3799504243543 41.5644824249338
77.4110716713239 48.2360648962332 40.9976587871007
77.8051558724424 48.0852351507191 40.4248423641329
78.2001924927815 47.9272961670888 39.8460057747835
78.5961059091638 47.7620801507947 39.2611237178024
78.9928170506731 47.5894165442641 38.6701730973035
79.3902432982744 47.4091320420412 38.0731331526721
79.7882983832239 47.221050610545 37.4699855930847
80.1868922843793 47.02499351273 36.8607147367092
80.5859311245307 46.8207793379461 36.2453076546434
80.9853170658852 46.6082240373042 35.6237543196461
81.3849482048508 46.3871409648652 34.9960477597038
81.7847184662805 46.1573409249789 34.3621842164683
82.1845174973489 45.9186322261103 33.7221633085896
82.5651111382057 45.2205017375873 33.735865860188
82.9376351379997 44.5184127735037 33.755882477636
83.3019902421452 43.8125697598752 33.7822017153059
83.6580820060996 43.1031789836799 33.8148085394782
84.0058208757772 42.3904483926766 33.8536843497817
84.3451222607665 41.6745873933835 33.8988070056689
84.6759066002293 40.9558066476306 33.9501508578554
84.9980994213794 40.2343178680949 34.0076867846433
85.3116313904609 39.5103336132332 34.0713822330287
85.6164383561644 38.7840670820218 34.1412012644889
85.9124613854404 38.0557319089147 34.2171046053289
86.1996467916912 37.3255419594252 34.2990497014549
86.4779461553401 36.5937111267314 34.3869907774354
86.7473163367997 35.860453129702 34.4808788996981
87.0077194818788 35.1259813127275 34.5806620437001
87.2591230196882 34.3905084477372 34.6862851649041
87.5014996531237 33.6542465387696 34.7976902733802
87.7348273420252 32.9174066294539 34.9148165118507
87.9590892791253 32.1801986137478 35.0376002369828
88.1742738589212 31.4428310502649 35.1659751037344
88.3803746396203 30.7055109805092 35.2998721525474
88.5773902983225 29.9684437513209 35.4392198991819
88.7653245796208 29.2318328418203 35.5839444269805
88.9441862378152 28.495879695124 35.7339694813474
89.1139889729452 27.7607835550852 35.8892165662265
89.2747513608644 27.0267413082976 36.0496050423608
89.4264967775844 26.2939473315818 36.2150522271153
89.5692533181337 25.5625933451559 36.3854734956437
89.7030537101792 24.8328682716725 36.560782383183
91.2127440904419 -20.0262811769269 35.7656731757451
90.9834857349077 -19.8085499927822 36.4640462745058
90.7509452176012 -19.5937289690591 37.1530850293621
90.5152906187367 -19.3817821417806 37.8329047948237
90.2766845088161 -19.1726735527687 38.503620906801
90.0352840978221 -18.9663672808369 39.1653485825526
89.7912413819666 -18.7628274709682 39.8182028271001
89.54470328791 -18.5620183615699 40.4622983458045
89.2958118143778 -18.3639043099011 41.0977494628115
89.044704171115 -18.1684498157566 41.7246700450818
88.7915129151292 -17.9756195434962 42.3431734317343
88.5363660841826 -17.7853783424987 42.9533723684391
88.2793873275052 -17.5976912661205 43.5553789466079
88.020696033707 -17.4125235892336 44.1493045471402
87.7604074558766 -17.2298408244172 44.7352597884908
87.498632833862 -17.0496087368696 45.3133544788363
87.2354795137326 -16.8717933581113 45.8836975721262
86.9710510644314 -16.6963609985389 46.4463971278132
86.7054473916288 -16.5232782588951 47.0015602740655
86.4387648487951 -16.35251204071 47.5492931742748
86.1710963455149 -16.1840295557723 48.0897009966778
85.902531453068 -16.0177983346827 48.622887886921
85.6331565073063 -15.8537862345412 49.1489569434048
85.3630547088596 -15.6919614458165 49.6680101952479
85.0923062207059 -15.5322924984455 50.1801485827249
84.8209882631423 -15.3747482672057 50.6854719400335
84.5491752061984 -15.2192979764042 51.184078980255
84.2769386595327 -15.065911203923 51.676067282378
84.0043475598555 -14.9145578846594 52.1615332802645
83.7314682559227 -14.7652083133981 52.6405722534374
83.4583645911478 -14.6178331471492 53.1132783195799
83.4457779987217 -14.0809770032119 53.2778398663373
83.4276860735355 -13.5469679097441 53.4443716107503
83.4041510960363 -13.0158825451606 53.6128191901912
83.3752366303833 -12.4877953249205 53.7831282536678
83.3410074592504 -11.9627783928231 53.9552444976517
83.3015295188328 -11.4409016147432 54.1291137010833
83.2568698341443 -10.9222325747532 54.3046817595257
83.2070964546858 -10.4068365735742 54.4818947184432
83.1522783905636 -9.89477662929854 54.6606988055815
83.0924855491329 -9.38611348032267 54.8410404624278
83.027788672239 -8.88090559042616 55.0228663747351
82.9582592741242 -8.3792091559328 55.2061235020928
82.8839695800664 -7.88107811488599 55.3907591065305
82.8049924658118 -7.38656415817051 55.5767207801439
82.721401397859 -6.89571674251079 55.7639564717332
82.6332703746511 -6.40858310527486 55.9524145124461
82.5406738687279 -5.9252082810125 56.1420436404209
82.4436867698843 -5.44563511965509 56.3327930244257
82.3423843293834 -4.96990430630436 56.5246122864924
82.2368421052632 -4.4980543825369 56.7174515235457
82.1271359087759 -4.03012176915119 56.9112613280294
82.0133417519971 -3.56614079028374 57.1059928075329
81.8955357966326 -3.10614369882139 57.3015976034241
81.7737943040557 -2.650160703037 57.498027908495
81.6481935865978 -2.19821999437627 57.6952364836281
81.5188099601164 -1.75034777632405 57.8931766734936
81.3857196978586 -1.30656829427935 58.091802421288
81.2489989856387 -0.866903866369026 58.2910682825263
81.1087238783419 -0.431374915131105 58.4909294379008
80.964970257766 -4.29954595830339e-16 58.6913417052214
81.1087238783419 0.431374915131104 58.4909294379008
81.2489989856387 0.866903866369025 58.2910682825263
81.3857196978586 1.30656829427935 58.091802421288
81.5188099601164 1.75034777632405 57.8931766734936
81.6481935865978 2.19821999437627 57.6952364836281
81.7737943040557 2.650160703037 57.498027908495
81.8955357966326 3.10614369882139 57.3015976034241
82.0133417519971 3.56614079028374 57.1059928075329
82.1271359087759 4.03012176915119 56.9112613280294
82.2368421052632 4.4980543825369 56.7174515235457
82.3423843293834 4.96990430630436 56.5246122864924
82.4436867698843 5.44563511965509 56.3327930244257
82.5406738687279 5.9252082810125 56.1420436404209
82.6332703746511 6.40858310527485 55.9524145124461
82.721401397859 6.89571674251079 55.7639564717332
82.8049924658118 7.38656415817051 55.5767207801439
82.8839695800664 7.88107811488598 55.3907591065305
